       -0.0008615533        0.0006523076       -0.0000039643
        0.0001050988       -0.0005763626       -0.0001715750
       -0.0000503215       -0.0001023981        0.0004658448
       -0.0003831933        0.0001007619        0.0008780681
       -0.0002391546        0.0001794717       -0.0000251596
        0.0004977892        0.0011251985        0.0003817560
       -0.0006445928        0.0006682824        0.0009791614
        0.0001062886       -0.0004189726       -0.0000353913
       -0.0013977044        0.0003795663        0.0001930709
        0.0004133037        0.0013988500        0.0008618502
       -0.0000331370        0.0000116710        0.0000494804
        0.0004588927       -0.0006077514       -0.0004523699
        0.0007247366        0.0004281283       -0.0008485723
       -0.0002276244       -0.0002326749       -0.0002112056
       -0.0003125270       -0.0000779338       -0.0001419113
        0.0001504213       -0.0004068801       -0.0016796563
       -0.0002500463        0.0002509169       -0.0001336443
        0.0002755134       -0.0001983820        0.0007718299
        0.0001971002       -0.0011777938        0.0003984011
        0.0000902469        0.0000909937        0.0002333989
        0.0006913073       -0.0000572104        0.0015665116
       -0.0007441261       -0.0004091442        0.0003641863
       -0.0003255429        0.0000784105       -0.0003044545
        0.0013502751        0.0001985864       -0.0006010445
        0.0015716101        0.0010466715        0.0009779162
       -0.0001610360        0.0001360066       -0.0000610246
        0.0005795266       -0.0009101039        0.0000798196
        0.0001778551       -0.0001721763       -0.0009422946
        0.0001883689        0.0001579595        0.0000871033
       -0.0005591423       -0.0010966315        0.0002727941
       -0.0003530067        0.0005089157       -0.0007801598
        0.0004302906        0.0002430702        0.0001565763
        0.0006847845        0.0010394930       -0.0029620941
        0.0006562197       -0.0012604007       -0.0012760783
       -0.0000692339        0.0002923165       -0.0002014001
        0.0000154491        0.0005240967        0.0001348514
       -0.0002100922       -0.0005117781        0.0005775827
        0.0000509210       -0.0000297773       -0.0001472543
        0.0001685087       -0.0002464804        0.0001500187
        0.0002693899       -0.0009609599       -0.0005007211
       -0.0001317138        0.0001601457        0.0002309817
       -0.0009818747       -0.0002507460        0.0001077458
       -0.0002763082       -0.0008130744       -0.0012950300
       -0.0001506458       -0.0000460580        0.0001086740
        0.0000906863       -0.0000171966       -0.0006721745
       -0.0004978967       -0.0008822644        0.0016347531
       -0.0000318584       -0.0000304515        0.0001786522
        0.0002254213       -0.0003554190        0.0006611674
       -0.0001361070        0.0004426912       -0.0004836926
       -0.0001960808       -0.0002307094       -0.0001284401
       -0.0001924207        0.0011434020        0.0000981812
        0.0011197638        0.0001013921       -0.0008699578
       -0.0002643378        0.0000557391       -0.0004611470
        0.0001716358       -0.0008723832       -0.0001203590
       -0.0000517211        0.0004376156        0.0002490246
       -0.0000825767        0.0000567014       -0.0004205680
       -0.0001176966        0.0005769640       -0.0004290647
        0.0012431470        0.0003411039       -0.0005673597
       -0.0000040115       -0.0001412090       -0.0003259521
        0.0005381115       -0.0020427881       -0.0007431807
        0.0013587215       -0.0013029565       -0.0002602594
       -0.0000272312       -0.0000533185        0.0001050319
        0.0002810446       -0.0007171241       -0.0008984915
        0.0006979305       -0.0005062474       -0.0003894551
       -0.0002371793       -0.0001855351       -0.0001510773
       -0.0002745589        0.0005329086       -0.0002188443
        0.0005418718        0.0007576270       -0.0007505010
        0.0004381849       -0.0001347185       -0.0002883762
       -0.0003136501        0.0004704005       -0.0002729486
       -0.0004619025       -0.0004101419       -0.0006632156
       -0.0000794818       -0.0001130811        0.0003105452
       -0.0004593847        0.0000767173        0.0003518167
       -0.0013769031       -0.0002181512       -0.0000731483
       -0.0002097918       -0.0000721709        0.0000335311
       -0.0000014133       -0.0001280691        0.0003793080
       -0.0004824167       -0.0002500682        0.0006888840
       -0.0001527859       -0.0003123592        0.0003970341
        0.0006145141       -0.0002607989        0.0008694819
        0.0011688046       -0.0012516563        0.0010416525
       -0.0000199694       -0.0000991270        0.0003381536
        0.0003025964        0.0001458433       -0.0005377689
        0.0007147827        0.0016209760       -0.0001480358
        0.0001013151        0.0001297509       -0.0000144751
        0.0007352643        0.0000259865       -0.0008961824
        0.0008171144       -0.0000441383        0.0000826119
       -0.0004598352       -0.0001854105       -0.0002769442
       -0.0010678779       -0.0010076544       -0.0010306287
       -0.0008300980        0.0014462975        0.0001521979
        0.0001683203       -0.0001886258        0.0002004031
        0.0002758778       -0.0000565204       -0.0003545648
       -0.0003117593       -0.0004515446       -0.0009181214
       -0.0003300647        0.0000811075       -0.0002142480
       -0.0011525433       -0.0008162112       -0.0001170085
        0.0003368123        0.0003623886       -0.0004289701
        0.0000372035        0.0004420046       -0.0001952742
       -0.0005070239       -0.0004714062       -0.0001357555
       -0.0003596869        0.0009499957       -0.0002300353
       -0.0001955757        0.0000197777       -0.0001815335
       -0.0017751231       -0.0010383010       -0.0003727835
        0.0012324679       -0.0006746040       -0.0005038981
       -0.0001513399        0.0000993559        0.0002033201
       -0.0004657194       -0.0008086499        0.0002747937
        0.0010480698       -0.0004324431       -0.0009525655
        0.0001253362       -0.0002413384       -0.0000685847
       -0.0010851753       -0.0009371503        0.0006696260
        0.0001264845        0.0003508532       -0.0001773426
        0.0000784790        0.0000249821       -0.0002493965
       -0.0004349204       -0.0005428276        0.0007823180
        0.0006743030       -0.0005632145       -0.0007096596
       -0.0002993282       -0.0001733871       -0.0000396120
       -0.0002755947        0.0008567856       -0.0008143170
       -0.0005187628       -0.0009267761        0.0001153560
       -0.0002020311        0.0003425146       -0.0000967673
       -0.0005735816       -0.0001717978       -0.0001239457
       -0.0010281820       -0.0013621421       -0.0000425517
       -0.0001342928        0.0004589182       -0.0001285544
        0.0011569930       -0.0000023131       -0.0002724705
        0.0000231761       -0.0001059746       -0.0000869912
        0.0002790947        0.0000839551       -0.0001283810
       -0.0009188831        0.0015065586        0.0007727237
       -0.0007587656       -0.0006822516        0.0010098323
        0.0001885530       -0.0000405778       -0.0002549384
       -0.0006166817       -0.0011135640       -0.0002304824
       -0.0008702032       -0.0000212321        0.0001450281
       -0.0002645003       -0.0001677368       -0.0002170244
       -0.0013665436        0.0001820121       -0.0000195634
       -0.0004029421       -0.0000032048       -0.0003009724
        0.0004721276       -0.0000059888       -0.0000125965
        0.0000247289       -0.0002962972       -0.0009433659
        0.0007379306       -0.0002011024        0.0005370240
       -0.0003441820        0.0000890840        0.0000836814
       -0.0005926567       -0.0002611141       -0.0001151174
        0.0000169484        0.0023318486        0.0005192313
       -0.0001638759       -0.0003178188        0.0002800986
       -0.0008343737        0.0009278472       -0.0000555376
       -0.0003133699        0.0001904269       -0.0005071732
       -0.0001676524       -0.0001300565       -0.0002918820
       -0.0001836658       -0.0009346121        0.0003895562
        0.0002384659       -0.0001349923        0.0008949082
       -0.0002689141       -0.0000501217       -0.0001753829
       -0.0005359696       -0.0006622603       -0.0006142679
       -0.0005384121       -0.0001718254       -0.0002406680
       -0.0000423638        0.0000847197        0.0001222191
        0.0010647649       -0.0000111785        0.0002599835
        0.0004267409        0.0003887794       -0.0001115824
       -0.0000335346       -0.0001444289       -0.0000099077
       -0.0009866404       -0.0005526891       -0.0002813130
        0.0000060829       -0.0010814791        0.0000987393
       -0.0003413027       -0.0002191317        0.0000668618
        0.0005560332       -0.0002816949       -0.0002938107
        0.0007085002        0.0003159991       -0.0010434994
       -0.0000049633        0.0002728923       -0.0000435606
       -0.0000404144       -0.0026256616        0.0004717167
       -0.0015497810       -0.0000174863       -0.0002707998
        0.0000825269        0.0002290904        0.0000287354
        0.0011245005       -0.0012638016       -0.0005470168
       -0.0008405967       -0.0008033124        0.0000638864
        0.0000589965       -0.0000706652        0.0004451924
        0.0004796482       -0.0004329962        0.0008923065
        0.0000553738        0.0004173869        0.0007059453
        0.0002034402        0.0001228099        0.0002055586
       -0.0001292031       -0.0003422589       -0.0008630696
       -0.0004335345        0.0000682201       -0.0014593906
       -0.0002755179        0.0000567064        0.0000396763
       -0.0006564460       -0.0002961311       -0.0003590078
       -0.0003402947        0.0005790629       -0.0004886994
        0.0000808143       -0.0002828812       -0.0001320913
        0.0002323001       -0.0000651690        0.0007432877
        0.0005621649       -0.0009763775       -0.0000889099
        0.0003221886        0.0002363007       -0.0000306038
        0.0000783658       -0.0000152604        0.0013957981
        0.0006164813       -0.0006810103        0.0002173025
        0.0002311081        0.0002277742       -0.0003182359
       -0.0006173440        0.0005775609        0.0003189706
        0.0022249655       -0.0002442319       -0.0002981429
        0.0001262456        0.0002640098       -0.0001794763
        0.0001428634        0.0014938048       -0.0011240124
       -0.0003811627       -0.0002968892        0.0004124159
        0.0000231433        0.0001175035        0.0000860805
       -0.0004738369        0.0022613123        0.0006656531
       -0.0003529147        0.0001360213       -0.0005089168
       -0.0000052888        0.0000450199       -0.0001056775
        0.0002330790        0.0000274653       -0.0005509036
       -0.0000797432        0.0000234025       -0.0004183144
       -0.0001702109        0.0000980637       -0.0001801441
       -0.0003905260        0.0016257530       -0.0002356690
        0.0013282578       -0.0007642261        0.0004639774
       -0.0001032113       -0.0001407429        0.0000218429
       -0.0004257283        0.0015149701        0.0003199378
        0.0000551203       -0.0000537235        0.0006274092
       -0.0000653307       -0.0000458208        0.0000607373
        0.0006305776       -0.0002591656       -0.0004417618
        0.0003814525       -0.0000084442        0.0002016105
       -0.0000514553        0.0000788212       -0.0002718215
       -0.0003415930        0.0010725661        0.0000006058
       -0.0000437433       -0.0005557763       -0.0002414647
       -0.0002756941        0.0000106877       -0.0002716071
       -0.0002912507        0.0008569301        0.0002651192
        0.0009826515        0.0006213237        0.0008934160
       -0.0002724095       -0.0002566632       -0.0000444296
        0.0004347597       -0.0003551158       -0.0003554015
        0.0000789516        0.0000715308        0.0008660359
       -0.0001351715        0.0002113673        0.0001078804
       -0.0006727712        0.0016399507        0.0003345442
        0.0005365941       -0.0011066265       -0.0006265288
       -0.0002179162        0.0000416963        0.0002079587
        0.0005250371       -0.0003099875       -0.0002954617
       -0.0002549666       -0.0005351908        0.0007474812
        0.0002459831       -0.0000512376       -0.0001002306
        0.0001290882       -0.0002282160       -0.0002147003
       -0.0001267757        0.0000506091       -0.0005315353
        0.0000249327       -0.0002456428        0.0001800030
       -0.0006681415        0.0000921091        0.0002847785
       -0.0004697381        0.0002017665       -0.0007271899
        0.0001883071        0.0001947689       -0.0000352068
        0.0004861478        0.0010729308        0.0003610733
        0.0002727565        0.0012962109       -0.0015671653
       -0.0002029075       -0.0002843681       -0.0002774329
        0.0004172019       -0.0000526046       -0.0004054343
       -0.0006208980        0.0004991439       -0.0000623790
       -0.0004889380        0.0001048991        0.0001249190
        0.0004213763        0.0006079005        0.0001000322
        0.0013039989        0.0002203674        0.0001491702
       -0.0001507599        0.0000444833        0.0000530437
       -0.0008391142        0.0003913325        0.0005844589
       -0.0016873631       -0.0008733820        0.0000593218
       -0.0003075136        0.0000117620       -0.0001796895
       -0.0004861817        0.0012745727       -0.0001712456
       -0.0014406436        0.0001548140       -0.0009818872
        0.0001732628        0.0000108067       -0.0002400298
       -0.0004464359       -0.0003398334        0.0002275951
       -0.0006566519        0.0000185761        0.0004906263
        0.0000858563        0.0000116228        0.0000173342
        0.0016498794        0.0003090281        0.0004417551
        0.0014737397        0.0011619837        0.0009663804
        0.0003743241       -0.0000796552       -0.0000389219
        0.0010936936        0.0013176383        0.0001723093
       -0.0003914134       -0.0004097374        0.0006218475
       -0.0000924934       -0.0002421122        0.0001025234
        0.0001658122        0.0003175562        0.0007894357
       -0.0012307908       -0.0015969268       -0.0009807642
       -0.0002360668        0.0000857190       -0.0001386848
       -0.0004422093       -0.0000775440        0.0005408756
        0.0003491384        0.0010035672        0.0005684388
       -0.0003364558        0.0001577219        0.0004817972
       -0.0009844791       -0.0000482256        0.0002322974
       -0.0007358095        0.0005737654        0.0001133886
        0.0002296460       -0.0002408343       -0.0001546298
        0.0007315947       -0.0007320132       -0.0002411101
        0.0010674962       -0.0006484920        0.0019651056
       -0.0002982749       -0.0000074052       -0.0000806044
        0.0015243800        0.0008684954       -0.0005973210
        0.0005716028        0.0002756924       -0.0003601532
        0.0000879130        0.0000159201       -0.0000804374
        0.0003793607       -0.0005839788        0.0009335125
       -0.0005998831       -0.0013302457        0.0006702634
       -0.0000893584        0.0000222943        0.0001789346
       -0.0003418760        0.0001528593       -0.0000760513
       -0.0000645916        0.0002638365        0.0009277548
        0.0000653712        0.0000779008       -0.0002821800
        0.0012142119        0.0005410772        0.0009560716
        0.0009055213        0.0000976077        0.0003606662
        0.0000048127        0.0003463839        0.0001001086
        0.0002982980        0.0002027544        0.0005372734
       -0.0002156175       -0.0001266220        0.0000551804
        0.0003498144        0.0001428507       -0.0000196749
       -0.0009406855        0.0004812803        0.0011390345
        0.0002575503       -0.0007495712        0.0004493460
       -0.0002808789        0.0000364827        0.0002452191
        0.0008124269        0.0001704896        0.0011352916
        0.0002147932        0.0002514539        0.0009822989
       -0.0001682917       -0.0001829734        0.0000954905
        0.0002021907       -0.0002257146        0.0002891355
       -0.0003867864       -0.0002562022        0.0015180974
        0.0001079680       -0.0000595564       -0.0000483386
        0.0003442132        0.0001621870       -0.0002278546
        0.0005503880        0.0005647281        0.0003992694
        0.0000341654       -0.0002026099        0.0003085124
        0.0000008776       -0.0002918157        0.0002224268
       -0.0001481790       -0.0004351421       -0.0000032926
       -0.0001863830        0.0002258703        0.0000415843
        0.0009094388        0.0004210787       -0.0006599490
       -0.0000911158        0.0006137244        0.0003355295
        0.0000511018        0.0000288333       -0.0003120885
       -0.0007073099        0.0002350961       -0.0003915325
        0.0000303891        0.0005420855       -0.0003114165
       -0.0002710369       -0.0000495172       -0.0001616398
       -0.0003154424       -0.0009850307       -0.0003785371
        0.0009831867        0.0007445690       -0.0002741605
       -0.0000734713       -0.0002848864       -0.0000025591
        0.0001058152        0.0007459867        0.0005004192
       -0.0010152634        0.0007289440        0.0008991445
       -0.0000242644       -0.0001293089        0.0001279258
        0.0010353744       -0.0002656904       -0.0005889875
       -0.0003377155       -0.0006874074       -0.0002587714
       -0.0000394095       -0.0002027717       -0.0001775350
       -0.0005196682        0.0001677062       -0.0008016433
        0.0012614303       -0.0006271959        0.0000953521
       -0.0000851394        0.0000939468        0.0000511689
        0.0002084403       -0.0005725294       -0.0005093423
        0.0001919067       -0.0000342890       -0.0003533271
        0.0001217053        0.0002370185        0.0000448596
       -0.0011348223       -0.0004742133       -0.0006811179
        0.0010345566       -0.0005274040       -0.0007221025
       -0.0000053431        0.0002394137       -0.0001715234
        0.0003260361       -0.0000196278       -0.0001733869
        0.0004729357        0.0014299906       -0.0006282421
       -0.0000375102       -0.0002782742        0.0002262391
        0.0006337119       -0.0005584767       -0.0006427884
        0.0006578285        0.0001073197        0.0002829568
        0.0000172609        0.0001079850        0.0002619110
       -0.0001979612        0.0003362901       -0.0002387861
       -0.0006251141        0.0000033949       -0.0000377563
       -0.0003984473       -0.0000473356        0.0003081620
       -0.0015453320       -0.0003399859       -0.0003281451
       -0.0004139228        0.0010855575        0.0005913096
        0.0000784482       -0.0000073185       -0.0003423879
        0.0001775231        0.0016503098       -0.0004807052
       -0.0002283015       -0.0000558204       -0.0009936255
       -0.0001416580        0.0000915023        0.0000101703
        0.0008234472       -0.0015492005       -0.0011726676
       -0.0000271179       -0.0001173365        0.0008696214
        0.0001414434       -0.0001092953       -0.0001168856
        0.0010950678       -0.0007438724       -0.0001266514
       -0.0003697153        0.0005572222        0.0005358727
        0.0005925772       -0.0002487507        0.0000663408
       -0.0010036199       -0.0004712519        0.0004266526
        0.0000580216       -0.0000717565        0.0010566183
       -0.0003276015        0.0000157332        0.0000443004
        0.0004482647        0.0003761253        0.0006349316
       -0.0013748546       -0.0011836572        0.0004797100
       -0.0001774018        0.0000063731        0.0001795362
        0.0009602285       -0.0005292477       -0.0007419034
        0.0000539427        0.0009538210        0.0001830722
       -0.0000090178       -0.0001168950        0.0002631973
        0.0002635683       -0.0005241467        0.0000894605
       -0.0001788442       -0.0002498412        0.0003804582
        0.0002297645       -0.0002135077       -0.0001053777
        0.0007170028        0.0003674476       -0.0000229941
       -0.0006562618       -0.0002673093        0.0002562598
        0.0002385319        0.0001547474       -0.0001922366
       -0.0005859931       -0.0014644297        0.0011905157
       -0.0004743641        0.0001991367        0.0004894003
        0.0002077429        0.0001219862        0.0000224996
        0.0004764363        0.0008133219       -0.0007672648
        0.0005226246       -0.0001900244       -0.0007208382
        0.0000862163        0.0000120913       -0.0000641482
       -0.0000560422       -0.0000376514       -0.0002845666
       -0.0006442642       -0.0002069780       -0.0003827410
       -0.0003194546       -0.0000004671        0.0001339395
        0.0002194479       -0.0003635578        0.0004679062
       -0.0001948673       -0.0006345004       -0.0003642015
        0.0003273162        0.0000570180       -0.0003205871
       -0.0003050953        0.0007118391       -0.0006416647
       -0.0006724228       -0.0017888533        0.0003215368
       -0.0000037450        0.0001375226       -0.0000634763
       -0.0000903467       -0.0011453588        0.0004243716
       -0.0000298845        0.0006525200        0.0011479312
        0.0001258686       -0.0000890315       -0.0000123158
        0.0017178849       -0.0003973302       -0.0005740449
       -0.0000518626       -0.0007986209       -0.0001886091
       -0.0000197841       -0.0001037294       -0.0000731638
        0.0015985985       -0.0000239523        0.0007680590
       -0.0006141900       -0.0009096101        0.0006793824
        0.0001902388       -0.0002599806       -0.0001281266
        0.0006491912       -0.0003950538        0.0002075129
        0.0019563342       -0.0001319294        0.0001772724
       -0.0001125888        0.0002222811       -0.0002268849
       -0.0001764098       -0.0002955090       -0.0003791043
       -0.0006585811       -0.0004349858       -0.0009310964
       -0.0002410468       -0.0000033450        0.0001517648
       -0.0004896382        0.0008052958        0.0001872792
       -0.0001283892       -0.0003827284       -0.0006392494
        0.0000463890       -0.0001311601       -0.0003219788
       -0.0005751327        0.0005274134        0.0001747417
       -0.0010406026       -0.0002889500       -0.0004933985
        0.0001132747        0.0003216196        0.0001684053
        0.0004685247       -0.0004194939       -0.0002485993
       -0.0003945765        0.0000814184        0.0005558404
       -0.0001821670       -0.0002776718       -0.0001069465
       -0.0004678023        0.0014585585        0.0003280087
        0.0002330407        0.0012085436       -0.0004076168
        0.0001200443        0.0001329335       -0.0000006956
       -0.0004126644       -0.0001467201       -0.0009064309
        0.0002301973       -0.0006167492       -0.0000828456
        0.0001678299        0.0004961546        0.0004045566
        0.0004108288        0.0005769600        0.0007167557
        0.0001876877       -0.0004945466        0.0012573041
       -0.0000674902       -0.0001267151       -0.0000355436
       -0.0002924751       -0.0002096709       -0.0005641350
       -0.0001532987       -0.0002250953        0.0002504883
        0.0000708987        0.0002301826       -0.0002572279
       -0.0001311015       -0.0008784369       -0.0002373952
       -0.0001908647        0.0002283779        0.0002618692
       -0.0001593476       -0.0000073764        0.0000132368
       -0.0012098163        0.0013943988        0.0003378099
        0.0002492112        0.0013962309        0.0009940320
       -0.0001063808        0.0002603835       -0.0002718294
        0.0002292011       -0.0001092263        0.0003745471
        0.0002311642       -0.0012621066       -0.0024591696
        0.0001832040        0.0002491548        0.0001522703
       -0.0005350539       -0.0001671534        0.0001678122
        0.0015594935        0.0002332779        0.0001157970
        0.0001694570       -0.0001071509       -0.0002324469
       -0.0002880872        0.0004430849        0.0012435302
        0.0007352971        0.0011216349       -0.0001963827
       -0.0000782248       -0.0000225141        0.0000604271
        0.0000365406       -0.0005739436        0.0004562258
       -0.0004593724        0.0014870862        0.0005236241
       -0.0003661358        0.0001724269       -0.0000465996
       -0.0005985205       -0.0012001648       -0.0007291800
       -0.0001121947       -0.0010290852       -0.0000240595
       -0.0002020236       -0.0000279819        0.0000334517
        0.0007935940        0.0005423701       -0.0008521781
       -0.0004188521        0.0001904452       -0.0012768055
       -0.0003975707        0.0000409329        0.0000573752
       -0.0004505722        0.0005367005       -0.0002622194
       -0.0005754294       -0.0002276598        0.0005735919
       -0.0002167111       -0.0000131201        0.0001919997
        0.0005586987        0.0000070086       -0.0001206656
       -0.0001051295       -0.0009926589        0.0016991281
       -0.0000420968        0.0000064068        0.0000337644
       -0.0004944073       -0.0002548869       -0.0000029718
       -0.0014313214        0.0004636813       -0.0003112103
       -0.0000744235       -0.0000607370        0.0003472550
        0.0007890146        0.0003735756        0.0009084115
       -0.0002168684       -0.0010167342        0.0010370110
        0.0000742224        0.0000853400        0.0001858672
       -0.0006235322       -0.0001238219        0.0007559993
        0.0001820705       -0.0004494280       -0.0002540156
       -0.0001244516       -0.0001040604       -0.0001524963
        0.0000262051       -0.0008773790        0.0007494865
       -0.0001709818        0.0008210702        0.0002390293
       -0.0002083828        0.0000080045       -0.0003207739
        0.0005524103        0.0006298241        0.0005642784
        0.0013264571        0.0002564826        0.0005021179
        0.0002278849        0.0001275298        0.0001891320
       -0.0004568562       -0.0005322161       -0.0002918521
        0.0010539627        0.0004480871       -0.0001201075
        0.0001090752        0.0001330400        0.0000505014
        0.0000683200        0.0005933817        0.0000324671
        0.0005661900       -0.0003571937       -0.0005450657
        0.0002157128        0.0000944536        0.0002909706
        0.0004871657        0.0005182852       -0.0002611379
        0.0001792971       -0.0002485118        0.0001511355
        0.0001050144        0.0001194122       -0.0001992427
        0.0005919015       -0.0002639834       -0.0003801164
       -0.0001799852        0.0001051319        0.0004902709
        0.0002968240        0.0000102660        0.0000441465
        0.0009730563       -0.0000680041        0.0009499774
        0.0007060532       -0.0007126808        0.0000740004
        0.0000494315       -0.0001622354       -0.0000707436
       -0.0000832402        0.0005482325        0.0006381237
       -0.0001928334        0.0005522303       -0.0003146230
        0.0003595258       -0.0001589387        0.0001312182
       -0.0015976856       -0.0001437014       -0.0002760630
        0.0000242481        0.0003531292       -0.0010296606
       -0.0004103548       -0.0000581170       -0.0000036649
       -0.0003994436        0.0007937287        0.0000517504
       -0.0002014923        0.0002717276        0.0008077439
       -0.0000616604       -0.0000116237        0.0002589827
       -0.0006303769       -0.0005147020        0.0001357542
        0.0002602753       -0.0004380493       -0.0008481791
        0.0001420169        0.0002050788       -0.0000588524
       -0.0005330532       -0.0019379224       -0.0000395306
       -0.0001432516       -0.0006766584        0.0001513854
       -0.0000147994       -0.0002182744       -0.0002783140
        0.0001702493       -0.0009588404       -0.0005105670
        0.0009945919       -0.0006389817       -0.0011114142
       -0.0000880669       -0.0001499959        0.0000847809
        0.0001532950       -0.0006871646       -0.0015257131
       -0.0010922992       -0.0013551713       -0.0010442960
        0.0003828059        0.0001667027       -0.0000171180
        0.0004239738       -0.0003824634       -0.0000167499
       -0.0003740803        0.0001596685        0.0004689068
        0.0000359464       -0.0001132861       -0.0001693643
       -0.0001528721       -0.0001733928        0.0010136075
        0.0006662987        0.0014300691        0.0000283325
       -0.0002550875        0.0000048782        0.0000137958
       -0.0002265546        0.0010794944        0.0001058694
        0.0009380947        0.0009869980        0.0006947012
        0.0000670525       -0.0001746363       -0.0001296989
        0.0001224484       -0.0000582471        0.0004881147
        0.0006372512        0.0000930780        0.0009648046
        0.0000324589        0.0001793348       -0.0004282211
       -0.0001960733       -0.0006733090       -0.0005515027
       -0.0000187482        0.0000911547       -0.0013732208
       -0.0001227306        0.0000003515        0.0000160987
       -0.0000545571        0.0011295029        0.0003164991
       -0.0004038748        0.0004493531        0.0006387811
        0.0001595305        0.0001589747        0.0000174382
       -0.0004522311        0.0004582987        0.0001504781
        0.0017805572        0.0002558464        0.0002862066
        0.0003210008        0.0003348596        0.0001064604
       -0.0012115489        0.0004337115       -0.0008202102
       -0.0017648262        0.0005159340        0.0000610685
        0.0002274051       -0.0003516611       -0.0001619399
        0.0005635852        0.0001293783       -0.0006598996
       -0.0000250393        0.0011967274       -0.0004902293
       -0.0000499687       -0.0000620988       -0.0001212177
        0.0000077885       -0.0006573323       -0.0014727392
       -0.0002961959       -0.0001574526       -0.0001166375
        0.0003350205       -0.0000448936       -0.0003133277
       -0.0012678018        0.0008517732       -0.0007463758
        0.0002566673        0.0000264338       -0.0008063637
       -0.0000345089        0.0002700048        0.0001809140
        0.0003546925        0.0000543345       -0.0000286343
       -0.0007244732        0.0012611726       -0.0001528345
        0.0002041225       -0.0000997083       -0.0000226802
        0.0002943448       -0.0004091092       -0.0001952414
       -0.0000266990        0.0006925046       -0.0002947650
        0.0003825550       -0.0000531949       -0.0000392212
        0.0000943516        0.0012478020        0.0002719438
        0.0004521861        0.0008538311       -0.0012521104
        0.0004976233       -0.0003075554        0.0001770490
       -0.0002872679       -0.0006061477        0.0011462088
       -0.0003251359       -0.0011439223       -0.0007163677
        0.0002633864       -0.0000110076       -0.0000945275
        0.0004809150       -0.0012342419       -0.0008009309
        0.0008623529       -0.0005959685       -0.0016180445
       -0.0002849717       -0.0000279302       -0.0001377631
       -0.0000706524        0.0006538775       -0.0007697298
        0.0006602168        0.0015086751       -0.0006473384
       -0.0001946597        0.0000729076        0.0000071957
       -0.0001434052        0.0009207615       -0.0008752232
        0.0006902727        0.0010351182        0.0000522862
       -0.0000605265        0.0003171479        0.0002936459
        0.0002428020        0.0010788810        0.0007118197
       -0.0010651057       -0.0000608294        0.0000036316
       -0.0000577639        0.0000369414       -0.0001516500
        0.0001088414       -0.0006061094       -0.0011628091
       -0.0000060345       -0.0006567719       -0.0005978393
        0.0004021023       -0.0000424522       -0.0001196312
        0.0003500746       -0.0003209709       -0.0009018701
       -0.0002064529        0.0003354925       -0.0001923237
       -0.0001130371       -0.0001729888       -0.0002995814
        0.0012496383        0.0000656935       -0.0002487026
        0.0005422649        0.0001947046        0.0005613336
       -0.0002540463       -0.0000495289        0.0000364751
       -0.0003038922        0.0007082028        0.0005571254
       -0.0000284758        0.0001231847        0.0001685919
        0.0000556289       -0.0001710422       -0.0001826743
        0.0016898588       -0.0006405147       -0.0009053823
       -0.0000117066       -0.0003993758       -0.0004368545
       -0.0001490070       -0.0001572483       -0.0002033552
       -0.0001485712        0.0004565704       -0.0009465065
        0.0002712571       -0.0001087152       -0.0005522570
       -0.0001815849       -0.0003758253       -0.0000935380
       -0.0001542763        0.0007099580        0.0008532263
       -0.0005914855       -0.0004910682       -0.0003523248
       -0.0000050939        0.0000326399       -0.0000212020
       -0.0011130857        0.0013439614       -0.0000426029
        0.0004929556       -0.0003855451       -0.0004329570
       -0.0001580280       -0.0000242803        0.0003398272
        0.0003745717       -0.0010253343       -0.0007494705
       -0.0006846251        0.0000751788        0.0009354352
        0.0001463651       -0.0002550787        0.0000401023
        0.0002964304        0.0013641183       -0.0009261567
       -0.0004208941        0.0005841505        0.0003437369
        0.0000048237       -0.0001697239        0.0000069524
       -0.0003297428       -0.0004153694       -0.0001993853
        0.0000644916        0.0006266993        0.0009741567
        0.0000468662       -0.0003103980       -0.0003030077
       -0.0002878382       -0.0003873504       -0.0008342325
        0.0003818752        0.0003301417       -0.0003173698
        0.0002515987       -0.0001041014       -0.0001092104
       -0.0001632352        0.0002192073        0.0003031198
       -0.0002303005       -0.0011291717       -0.0013153451
       -0.0002045358       -0.0000854168        0.0001109289
       -0.0003682310       -0.0003917144        0.0008708385
       -0.0000516986        0.0007436254        0.0005925225
       -0.0000243775       -0.0001082826       -0.0001696259
        0.0004975562       -0.0010285438        0.0001696564
        0.0017822951        0.0001170717       -0.0009344594
       -0.0002999642       -0.0001441787       -0.0001395286
       -0.0002420290       -0.0002480743       -0.0006345759
       -0.0010903086        0.0006546461        0.0012911075
        0.0002297605       -0.0001218769        0.0001077782
        0.0004026692        0.0004480618       -0.0009203706
        0.0007189628       -0.0009363606        0.0006133304
       -0.0000295134        0.0003058078        0.0000560883
        0.0002794707        0.0007283577        0.0011040387
        0.0007932595        0.0007769286        0.0003106658
        0.0000971298       -0.0003272207        0.0000248020
        0.0007048927        0.0001097016        0.0010232604
        0.0019773156        0.0001719582       -0.0001146508
       -0.0001192876       -0.0001267902       -0.0000974960
        0.0004716694        0.0006219881        0.0020293866
        0.0011455517       -0.0008592823       -0.0002072562
       -0.0001699142       -0.0002430477       -0.0000682718
       -0.0007694592       -0.0003631885        0.0003872392
        0.0007583909        0.0001969159        0.0010188275
       -0.0002725259       -0.0001461964       -0.0000710060
       -0.0001779302        0.0000724929        0.0005736317
        0.0005640417       -0.0002822270        0.0010457730
        0.0002662692       -0.0000889621        0.0002011910
       -0.0005034000       -0.0006921246        0.0004739189
       -0.0006881791       -0.0002244504       -0.0005296351
        0.0001335617        0.0000602451        0.0004144681
        0.0007106271        0.0006069747        0.0006655085
        0.0001378653       -0.0014620372       -0.0004896019
       -0.0002340847       -0.0000111423       -0.0000100899
       -0.0004780301       -0.0005947268       -0.0020661881
       -0.0000252672       -0.0006474692       -0.0017733054
       -0.0001202777       -0.0000973672       -0.0000406385
        0.0015080064        0.0000871830       -0.0001556926
        0.0000005112       -0.0001516712        0.0009603419
       -0.0003067365        0.0002030979       -0.0000868851
        0.0000231119       -0.0003270713        0.0007442517
       -0.0002846287       -0.0002843478       -0.0017119111
       -0.0002281875       -0.0002987060       -0.0000261994
        0.0000604685        0.0004694867       -0.0007061952
        0.0001634447       -0.0000124092       -0.0000097134
        0.0000048668       -0.0000061763       -0.0001286071
       -0.0001907423       -0.0009849433       -0.0001419965
        0.0007270684       -0.0006567178        0.0005608058
       -0.0001662963        0.0002840121       -0.0000923752
       -0.0001879653       -0.0000738659       -0.0001355961
        0.0001727303        0.0002911137        0.0003578365
       -0.0000528106        0.0001365572        0.0000094868
        0.0005005147        0.0004700864       -0.0002602914
       -0.0005435049        0.0008665094       -0.0004404026
       -0.0002376694       -0.0002340873       -0.0001746315
       -0.0001434395       -0.0005532021        0.0004210519
        0.0004293549        0.0004979972        0.0001981709
       -0.0000168233       -0.0001457772        0.0000331466
        0.0006298086        0.0002925691       -0.0011845888
       -0.0006938061       -0.0014975546       -0.0008081568
        0.0001542370        0.0000898244       -0.0002190942
       -0.0004245696       -0.0000061711        0.0001909490
        0.0004815665        0.0000242385        0.0013586795
        0.0000519921       -0.0000616912        0.0000102609
       -0.0003849171       -0.0003859269        0.0000569198
        0.0007349583        0.0003558860        0.0000727243
       -0.0000812337        0.0001006507       -0.0001500503
       -0.0002192972        0.0007283116        0.0001533075
       -0.0002682273        0.0006846165       -0.0009669497
        0.0003296141        0.0000146421        0.0000201246
       -0.0000392066       -0.0005101576       -0.0003394723
       -0.0003945138        0.0002570629       -0.0003263315
       -0.0002734117        0.0003029839        0.0001236928
        0.0002138944       -0.0000544731       -0.0002469908
        0.0001420099       -0.0010857646        0.0010059547
       -0.0000659423       -0.0000675066       -0.0000424686
       -0.0001209276       -0.0005066257        0.0001010629
       -0.0004576829       -0.0010915165        0.0004437644
       -0.0000719670       -0.0002275289        0.0000040692
       -0.0000356758        0.0010596213       -0.0007531103
       -0.0009912049       -0.0005613343        0.0000025428
       -0.0000650583       -0.0000927878        0.0001192096
        0.0004255563        0.0005304902       -0.0001345451
        0.0009733553       -0.0003288865        0.0003301590
        0.0001365763        0.0001765035       -0.0002649520
        0.0002647143       -0.0001280142        0.0000318143
       -0.0004677398       -0.0000203521       -0.0004377622
        0.0001233531        0.0000595482        0.0001296510
        0.0000568130        0.0005474746        0.0000696318
       -0.0004742381        0.0008701071        0.0005783371
        0.0000723365        0.0001373724        0.0001720442
       -0.0004996780        0.0007795540       -0.0005197234
        0.0011400527       -0.0007808632       -0.0005537338
        0.0002037906       -0.0001366897        0.0000209307
        0.0000028167        0.0003608329       -0.0006008368
       -0.0006222946        0.0004131309       -0.0002103156
       -0.0006320856        0.0000117319        0.0000014864
       -0.0011673637        0.0002768774        0.0005033920
       -0.0005058460        0.0006172793       -0.0002398327
        0.0000527974       -0.0000259072       -0.0000519871
        0.0020857834       -0.0007156479       -0.0003530778
       -0.0005977013        0.0006040121       -0.0009701217
       -0.0002375912       -0.0002599753        0.0000959379
        0.0003249279        0.0003444178        0.0000058074
        0.0002707256        0.0002677080       -0.0006305565
       -0.0003010565        0.0002217400        0.0000243777
       -0.0003980124       -0.0000865525        0.0004567497
       -0.0006436531        0.0000196527        0.0019282555
       -0.0001799467       -0.0001736992       -0.0000701593
       -0.0000254180        0.0004101199        0.0003219261
       -0.0013492524        0.0002340370        0.0011634166
        0.0000809719       -0.0003337631        0.0004401914
        0.0004757382       -0.0002281225       -0.0006863201
       -0.0003746283       -0.0016237083       -0.0007014729
        0.0002568657        0.0003623359       -0.0002583724
        0.0005779675       -0.0002469352        0.0014882608
       -0.0002733300       -0.0007442541        0.0007244887
       -0.0002472746       -0.0000451155       -0.0001919733
        0.0008744977       -0.0012436036        0.0002668719
       -0.0012766640       -0.0012912592       -0.0001311696
       -0.0000151542       -0.0002642717        0.0000034462
        0.0007349959        0.0014424221        0.0003969998
        0.0004354178        0.0003144930       -0.0000321086
       -0.0001740105       -0.0000461068        0.0002552290
        0.0002460693        0.0012305574       -0.0002632953
        0.0005823630       -0.0002126183        0.0003260190
       -0.0002434978       -0.0000296999        0.0001335380
        0.0001875333        0.0006417608       -0.0004952475
        0.0001862806       -0.0001713184        0.0005837720
       -0.0000775300       -0.0000681112        0.0004973598
       -0.0000989623        0.0000957423       -0.0002789855
        0.0007121624       -0.0002409636        0.0004783985
       -0.0000631278        0.0003036954        0.0000341118
        0.0001691834        0.0002520845       -0.0000717830
        0.0002725427       -0.0002146956       -0.0004627301
        0.0001074606        0.0000596499        0.0000243273
        0.0001003652       -0.0007673386        0.0001741307
        0.0014096782       -0.0000876043        0.0016672985
       -0.0002207367        0.0001359375       -0.0002845342
        0.0001390717        0.0009097096        0.0004537409
        0.0000631559        0.0005207409        0.0007501981
       -0.0000010291        0.0000601547        0.0000578295
        0.0002533702       -0.0000078264       -0.0004981527
        0.0017651675        0.0005182240        0.0013632961
        0.0001898858        0.0002067001        0.0000108471
        0.0003846925        0.0000656676        0.0009669620
       -0.0007085573       -0.0000129577       -0.0004876173
        0.0001601999       -0.0000838288       -0.0001096649
        0.0000129887       -0.0000012101       -0.0011737777
        0.0013785308       -0.0002959411       -0.0001012373
        0.0000481456       -0.0000079233       -0.0001738814
        0.0007553177       -0.0006169332        0.0001937098
        0.0002255607        0.0011756839       -0.0004389465
        0.0000284277       -0.0002508788        0.0000340308
       -0.0000250882       -0.0004749110       -0.0002205751
        0.0002883146       -0.0000147334        0.0002682056
        0.0002955883        0.0000300527        0.0000222538
       -0.0004390554        0.0014003735       -0.0005377493
       -0.0000461810        0.0008305300       -0.0003270326
       -0.0001436467       -0.0001928818        0.0002827997
        0.0000125571        0.0000797379       -0.0013244876
        0.0004738117       -0.0002782424        0.0002660993
       -0.0000346399       -0.0001549601        0.0000872373
        0.0010444220       -0.0003757761        0.0000218850
        0.0003782291        0.0003652737        0.0015918084
       -0.0000613525       -0.0000742913        0.0001675690
        0.0000002671       -0.0001341611       -0.0001922177
       -0.0006458441        0.0007733417        0.0006800188
       -0.0003022538        0.0002619959        0.0000893554
        0.0006488929       -0.0008442284        0.0006121042
       -0.0008313465        0.0002338497        0.0013135373
        0.0000272166       -0.0002733610        0.0000551916
        0.0005825359        0.0005483130       -0.0001010115
       -0.0003813823        0.0011445408        0.0009244359
       -0.0002564595       -0.0002723496        0.0000372260
       -0.0007000310        0.0008460618        0.0006795602
        0.0013160361        0.0002121567        0.0007624663
       -0.0000090546       -0.0003042980        0.0005706321
       -0.0002421597        0.0007063153        0.0003802144
        0.0010687195        0.0005559072       -0.0000820936
        0.0000278935       -0.0001539786       -0.0000558915
       -0.0009266998        0.0008619504        0.0011743589
        0.0006496577       -0.0000084486       -0.0006656758
        0.0003173232        0.0001745379       -0.0001036117
        0.0005560398       -0.0006871826       -0.0004154869
        0.0005936905       -0.0003235118       -0.0004818742
        0.0000937962        0.0002754141       -0.0002881675
       -0.0007637583        0.0008177047       -0.0005735166
        0.0003550418        0.0008540401       -0.0003773532
        0.0001515140       -0.0001845746       -0.0001541133
       -0.0006157619        0.0002954699       -0.0006372304
       -0.0000908031        0.0006218233        0.0004287904
        0.0003442109        0.0001082814        0.0000015858
       -0.0002973822       -0.0004838789       -0.0001349895
        0.0007328606       -0.0009421023        0.0005955042
       -0.0000082175       -0.0001750601       -0.0001371206
        0.0004847265        0.0005003185       -0.0000157137
       -0.0000423880       -0.0002004760       -0.0006010528
        0.0003537743       -0.0000740701        0.0001841365
        0.0005411904        0.0004898532       -0.0013263301
       -0.0006040814       -0.0004518763       -0.0004242833
        0.0000058793       -0.0002315177        0.0001539655
       -0.0005664443       -0.0000551013       -0.0007168223
        0.0013887277        0.0000382849       -0.0006792014
       -0.0000309253        0.0001850723        0.0002254558
        0.0008309818       -0.0007456900       -0.0002996179
       -0.0002969798        0.0003136843        0.0014639001
        0.0000044923        0.0001109628        0.0000542030
        0.0014427814       -0.0001398305        0.0013210253
        0.0022294163       -0.0004415181       -0.0003436083
        0.0000350861        0.0002494613        0.0000733412
       -0.0008246121       -0.0004655715        0.0007244159
       -0.0008109406        0.0006838131        0.0008132282
       -0.0002106361       -0.0000814561        0.0002209687
       -0.0013696770        0.0004029600        0.0004303808
        0.0011115932        0.0008612575       -0.0001037922
       -0.0002199075        0.0000992595        0.0000445794
       -0.0005359526        0.0008173139       -0.0002353352
