        -0.0012338724        0.0003469739        0.0005386742
         0.0001939664        0.0000257610        0.0002740139
        -0.0014721125       -0.0001083921        0.0019898726
         0.0005044119       -0.0006097219       -0.0006825730
         0.0000090297       -0.0001238992        0.0002389508
        -0.0001826686        0.0005016193        0.0006894312
        -0.0002059281       -0.0001676009       -0.0007417169
        -0.0003078549       -0.0002096704        0.0000763031
        -0.0004664361       -0.0001498364        0.0005512210
         0.0002637835        0.0004702921        0.0001498655
         0.0001455720       -0.0001791659       -0.0001931281
         0.0001655209        0.0008085128        0.0010867301
         0.0001751825        0.0009063789        0.0009958862
        -0.0000083972       -0.0001606659       -0.0002464156
         0.0003168981        0.0002029296       -0.0007134973
         0.0000261829        0.0006494538        0.0004745702
         0.0004504310        0.0000173475        0.0003061537
         0.0008237318       -0.0004063192       -0.0002953650
        -0.0004419684       -0.0000672722       -0.0001445329
         0.0000227898       -0.0000212756       -0.0000588234
         0.0004260033       -0.0000555217        0.0004929456
         0.0000352672       -0.0003326035        0.0001574546
         0.0000460700        0.0000400566       -0.0001225389
         0.0006527859       -0.0002560780       -0.0008177849
        -0.0001084014       -0.0011939563       -0.0002905998
        -0.0001830760       -0.0001230123       -0.0002623932
         0.0001723264        0.0001773708       -0.0009382277
        -0.0000494487        0.0010975944       -0.0003057881
         0.0000825368        0.0003624918        0.0000038853
         0.0001497381        0.0002879197        0.0000039038
        -0.0003272922       -0.0000370882       -0.0005551008
         0.0002760735       -0.0002431833       -0.0005394070
         0.0005769403       -0.0009196886       -0.0017640079
        -0.0010143209       -0.0012595191        0.0005924386
         0.0003138781        0.0002809545        0.0002656403
         0.0001240029       -0.0004274174        0.0000761780
        -0.0004518827        0.0002390426       -0.0002668839
         0.0001184595        0.0002619644        0.0002350601
         0.0001062263        0.0007169577       -0.0000099539
         0.0001811657       -0.0004068330        0.0000729910
        -0.0002574376       -0.0003109764        0.0000963832
         0.0000009439        0.0006877099        0.0001715251
         0.0006791276       -0.0000466684        0.0007736792
         0.0000302925       -0.0001675409        0.0001200792
         0.0013435219        0.0000347208       -0.0003441437
         0.0005301620        0.0009627242        0.0014623354
         0.0000560397       -0.0001059852       -0.0001802378
        -0.0001282196        0.0005715734       -0.0000482986
        -0.0000188174        0.0005819010       -0.0001477362
         0.0000333665        0.0000051148       -0.0002650429
         0.0001416693       -0.0000875980        0.0000222011
        -0.0009014931       -0.0000347390        0.0004657479
         0.0000210639       -0.0000180810       -0.0002206573
        -0.0008396242        0.0017254264       -0.0009370844
        -0.0002836604       -0.0005146379       -0.0002883090
        -0.0002725553       -0.0002744291        0.0000732704
         0.0008838634        0.0003753413       -0.0005071640
         0.0007389843       -0.0004276893        0.0000633420
         0.0001732580        0.0004036025        0.0000585127
        -0.0001587022        0.0001993244        0.0004684833
        -0.0002492764        0.0005113440        0.0007021148
        -0.0000081474        0.0000241040       -0.0001975180
         0.0006802460        0.0001862822        0.0003384499
         0.0001500280       -0.0002891965       -0.0000571910
        -0.0001581180        0.0002053765        0.0002407822
        -0.0010259871        0.0001556510       -0.0003355150
         0.0003260090       -0.0001907407       -0.0005480168
         0.0000346381        0.0002197578       -0.0001838711
         0.0002418556       -0.0003985729       -0.0003369107
         0.0000367282        0.0004157300        0.0010126478
         0.0000430314        0.0000062347        0.0002173204
        -0.0013848617        0.0001147283       -0.0017297989
        -0.0009945044        0.0011797745       -0.0005732137
         0.0000349605       -0.0000915285        0.0000536867
        -0.0002951441       -0.0003026012       -0.0002903886
         0.0005306106       -0.0014880457        0.0009149910
        -0.0000893553        0.0002582630       -0.0004371712
         0.0005014000        0.0012916130        0.0000261520
         0.0003412977        0.0004699758       -0.0000877118
         0.0000965948       -0.0000330569        0.0002368458
        -0.0000483419       -0.0012976695       -0.0003198383
         0.0006923195       -0.0011709355        0.0005977153
         0.0001875586       -0.0003159018       -0.0000443826
         0.0008346550        0.0000058323        0.0001886646
         0.0011453335        0.0001516682        0.0004144287
        -0.0002059531       -0.0002498077        0.0004465394
         0.0004702046       -0.0005416282        0.0003898103
         0.0006360355       -0.0004194103       -0.0002347993
         0.0000870565       -0.0001072129       -0.0002262380
        -0.0000490369        0.0003686022       -0.0013316626
         0.0008395756       -0.0000754059       -0.0005826367
         0.0001674061        0.0002312155        0.0001926788
        -0.0012980502        0.0006089566       -0.0015599623
        -0.0005159115        0.0005141793        0.0007270164
         0.0001148060        0.0000497807       -0.0000405575
        -0.0006611949       -0.0000338354        0.0000686722
         0.0008510765       -0.0000835260        0.0009150120
         0.0001200850       -0.0001321251        0.0004949880
         0.0011503212        0.0000411406        0.0000182181
        -0.0012726492       -0.0001084525       -0.0006352875
         0.0002491208        0.0002661391        0.0001759017
         0.0001661372       -0.0005003975       -0.0002217247
         0.0002739977       -0.0004793390       -0.0007494526
         0.0000025901        0.0001909047        0.0000636401
         0.0004219274        0.0003061308       -0.0008493750
         0.0013326797        0.0006475616       -0.0007216093
        -0.0002581457        0.0000267421       -0.0000424513
        -0.0000869255        0.0008481345        0.0010281269
         0.0000521131       -0.0004312667       -0.0009128433
         0.0001719425        0.0001283676        0.0002012817
         0.0004982138        0.0008996942       -0.0016198713
        -0.0010509222        0.0010868458        0.0002371994
        -0.0000251213        0.0000796022        0.0001328651
         0.0006502008       -0.0008495671       -0.0007980205
        -0.0002448952       -0.0013816958       -0.0002788858
         0.0000649576        0.0000508917        0.0001252376
         0.0015317351       -0.0001115853       -0.0004912627
         0.0001516463       -0.0005773279       -0.0004531492
         0.0002040615        0.0000774206        0.0002541049
        -0.0005345088       -0.0008481831        0.0000859393
        -0.0001788023       -0.0007393129        0.0001189686
         0.0001356815       -0.0000760635       -0.0003082542
         0.0001293436        0.0005228636       -0.0003809784
         0.0000667066        0.0006525897        0.0009379531
         0.0000097850       -0.0001798160       -0.0001235247
         0.0001818472       -0.0007033425       -0.0000165534
        -0.0000021056       -0.0009250782       -0.0005111147
        -0.0005871712        0.0002882608        0.0001436261
        -0.0003648848        0.0000352030        0.0005822413
         0.0015881642       -0.0003552077       -0.0003026300
         0.0000115196       -0.0002477032       -0.0000529261
         0.0010424409        0.0000029937       -0.0005327920
         0.0001625000        0.0002457092        0.0006941660
         0.0001116529       -0.0000221678       -0.0000854071
        -0.0003842315       -0.0000028853        0.0009248897
        -0.0011734961        0.0001069010        0.0000873195
        -0.0000588065        0.0002108138        0.0000040838
         0.0007898430        0.0007758078        0.0008213833
        -0.0004553053        0.0004180356       -0.0002186135
         0.0001443282       -0.0000076114       -0.0001145637
        -0.0005612842        0.0007026767       -0.0008291788
        -0.0006420945        0.0007356530       -0.0002386526
        -0.0000953028       -0.0002282819       -0.0002078262
        -0.0012554234       -0.0007472586        0.0001664939
        -0.0001528848        0.0005216848       -0.0005212036
         0.0000702634       -0.0003325322        0.0000414233
         0.0005460653       -0.0004191833       -0.0002187701
         0.0007634745       -0.0004978576        0.0006531165
         0.0005318569        0.0003166800       -0.0000669147
        -0.0001725784        0.0002520893        0.0004321198
        -0.0000653733        0.0003049132       -0.0002409205
        -0.0002219915        0.0001809712       -0.0003658827
         0.0002640505        0.0001583871       -0.0000807062
        -0.0006767165       -0.0008113618       -0.0003689281
         0.0002241886        0.0001504643        0.0000504597
        -0.0009721276       -0.0004508316       -0.0009881494
        -0.0004305945        0.0003780299       -0.0008940550
         0.0001406667        0.0000408676       -0.0000325400
        -0.0001988648       -0.0001179469       -0.0000983577
         0.0003925389       -0.0001083764       -0.0007073716
         0.0001954250       -0.0001552861        0.0000950236
         0.0000149660       -0.0010346759        0.0003311835
         0.0013617604        0.0005937700        0.0000585852
        -0.0000419566       -0.0003754934        0.0001075444
        -0.0016607157       -0.0000336582        0.0000386207
        -0.0011141224        0.0008274525       -0.0010626308
         0.0001833146        0.0000057945        0.0002646269
        -0.0011378027        0.0000742860        0.0001261645
         0.0004242528       -0.0008557058       -0.0005684216
         0.0002948434       -0.0001180736       -0.0001485947
         0.0001363742        0.0000490744        0.0015919189
        -0.0005885662        0.0008271925        0.0001032512
        -0.0000357310        0.0003028494       -0.0000406472
         0.0009464787        0.0013068578        0.0007457456
        -0.0010510761        0.0011494248       -0.0002589061
         0.0000271183        0.0000435048        0.0000106933
        -0.0005957966       -0.0002299551       -0.0008099664
         0.0000808103        0.0008134060       -0.0003906850
         0.0004836834       -0.0000570362        0.0004279071
         0.0004062700       -0.0003527651       -0.0000655309
         0.0002480992       -0.0001144805        0.0002687281
        -0.0000408930        0.0002621999        0.0001777347
         0.0012760439       -0.0008136849        0.0010499979
        -0.0003507680       -0.0003799406        0.0000139843
        -0.0000025259       -0.0001359310        0.0003527718
        -0.0002069650       -0.0006649912       -0.0011650413
         0.0002164739        0.0002407157       -0.0009118835
         0.0000639709        0.0003135072        0.0000369690
         0.0004971552       -0.0010172335       -0.0001730892
         0.0006247695       -0.0000581267        0.0004922910
        -0.0002552103        0.0002183289        0.0001161625
         0.0002821585       -0.0008544159       -0.0007372649
         0.0001679663       -0.0010318155       -0.0004899328
        -0.0001233625        0.0001150551        0.0000640411
        -0.0001206084       -0.0002886809       -0.0001311331
        -0.0006729173        0.0008551769        0.0001034874
         0.0001051006       -0.0000372139        0.0000226875
        -0.0009594917       -0.0011918608        0.0009954955
         0.0004176960        0.0004549294        0.0007751933
        -0.0001519818       -0.0002123266       -0.0001395084
         0.0004523104        0.0003539592       -0.0007137872
         0.0003469280        0.0000076429       -0.0010554429
        -0.0000894075        0.0001713640       -0.0001530828
         0.0006997816       -0.0005037263        0.0001511450
         0.0000444091        0.0007383046       -0.0003359455
        -0.0000650485        0.0003790762        0.0000186448
        -0.0001210477       -0.0004359216       -0.0008260932
         0.0006847062        0.0005128112       -0.0017176209
         0.0000638086       -0.0001044906       -0.0002530685
        -0.0001899650       -0.0004889026       -0.0002296861
         0.0003523007       -0.0008979679        0.0002462716
         0.0000380942       -0.0002864219       -0.0000418999
        -0.0006831219        0.0003504643        0.0001229281
         0.0004562723       -0.0001082980       -0.0007101892
        -0.0000485675        0.0000741692       -0.0001048459
        -0.0006558194       -0.0005460569       -0.0000911862
        -0.0014488192        0.0010569783        0.0002613418
         0.0003013156       -0.0002105488        0.0000858431
         0.0009555324        0.0011468378       -0.0002857311
         0.0010720711       -0.0011075248       -0.0011801517
         0.0004283404        0.0001109783        0.0003365945
         0.0002883134       -0.0010087555       -0.0007175021
         0.0007428632       -0.0005451014        0.0006211236
        -0.0000173990       -0.0003284453        0.0000222672
         0.0000784884        0.0012713698       -0.0001603947
         0.0005763951        0.0000607162       -0.0002625113
        -0.0001840682        0.0002168641        0.0000054551
        -0.0015333756        0.0005049536       -0.0011419181
        -0.0002718204       -0.0005065858        0.0007258526
         0.0000506673       -0.0001427411       -0.0002248061
         0.0002177839        0.0004631496        0.0005774940
         0.0010421393        0.0007830390       -0.0005320656
        -0.0000198208        0.0001318769       -0.0003045298
         0.0002864739        0.0003285839        0.0008288279
         0.0008317516       -0.0014424545       -0.0006122443
         0.0003698509        0.0003341298       -0.0001708560
        -0.0000952388       -0.0003668150       -0.0009584558
         0.0000010183       -0.0001631243        0.0005827469
         0.0001539976       -0.0000372655       -0.0001861078
         0.0014189301        0.0018877803       -0.0003912771
        -0.0000565648       -0.0002163091        0.0008976873
        -0.0003168357       -0.0000339398       -0.0002850489
        -0.0002861014       -0.0004238994       -0.0014001951
        -0.0011963208       -0.0004543358       -0.0002065970
        -0.0001483080        0.0003634431       -0.0002673524
        -0.0004553543       -0.0000127399       -0.0001350330
         0.0009230317       -0.0001010075       -0.0000096776
        -0.0001031261       -0.0000707070       -0.0001802733
        -0.0001214227       -0.0001690896       -0.0001533557
         0.0003073293       -0.0000972036        0.0008630915
        -0.0003973393       -0.0000953999       -0.0001600106
         0.0000375934       -0.0001108867        0.0001239926
         0.0000504193       -0.0002839533       -0.0003799158
        -0.0002567083        0.0001905687        0.0001628766
         0.0002732882        0.0006996306        0.0000252151
        -0.0009836781       -0.0009967497        0.0001882665
         0.0000770878        0.0000508421       -0.0002063356
         0.0012412290        0.0001645577       -0.0007265010
         0.0010279555        0.0004428057       -0.0008042501
        -0.0000079953       -0.0003036265       -0.0001530495
         0.0009105358       -0.0008637948        0.0014737383
        -0.0000589275        0.0014984043        0.0006692665
        -0.0003640190        0.0001965108        0.0001765625
         0.0010402268       -0.0000449380        0.0000981699
         0.0002766458        0.0005354976        0.0011354866
         0.0001376649       -0.0000267019       -0.0001894526
        -0.0003081282        0.0001052740       -0.0004633576
        -0.0002067676        0.0003199231        0.0009315376
        -0.0003037399        0.0004626140        0.0002455591
        -0.0000416455        0.0000994113        0.0011162889
         0.0007160655        0.0010469201        0.0011356043
         0.0001147710       -0.0002054753        0.0003128525
        -0.0006294393       -0.0009624932        0.0004162829
         0.0003919679       -0.0006986300       -0.0013747997
         0.0001909455        0.0004894500        0.0000228344
         0.0000875769        0.0000489266       -0.0004727809
        -0.0006858061        0.0005135584       -0.0009881114
         0.0001138564        0.0000073665        0.0000205024
         0.0001435567        0.0003809123        0.0000343961
         0.0015397871       -0.0001849286        0.0003941834
         0.0001954108       -0.0002217409       -0.0002369440
        -0.0001085019       -0.0006777253        0.0016528920
         0.0008751466       -0.0006991170       -0.0000985683
        -0.0000337899       -0.0000737361        0.0000955790
         0.0007272152       -0.0006753007        0.0022868283
         0.0004019104       -0.0002590819        0.0017429070
        -0.0000653793        0.0001532507       -0.0001215817
         0.0001373528       -0.0000131823       -0.0003422290
        -0.0011597628        0.0002390017        0.0008642418
        -0.0001974596       -0.0002956648        0.0000478001
         0.0000127537        0.0007417044        0.0002908194
         0.0008343603       -0.0009927937        0.0002557417
         0.0001420139        0.0002293478        0.0000421466
         0.0004113642        0.0001182597        0.0003552701
         0.0003005536        0.0005637015        0.0004084744
         0.0002705386       -0.0002614210       -0.0001393357
         0.0015278663        0.0003482020       -0.0005330357
        -0.0003249786        0.0014049443        0.0012417721
         0.0000053803        0.0000309920        0.0003133701
         0.0009460077        0.0003486877        0.0003478003
         0.0009221238        0.0016893271       -0.0002004507
         0.0001422228       -0.0000039458       -0.0002399374
        -0.0004876286       -0.0007912524        0.0001314070
        -0.0014640253       -0.0006823379        0.0003204425
         0.0001398456        0.0001382511       -0.0001177368
         0.0001951282       -0.0002131016       -0.0003864559
        -0.0007481440       -0.0016433992       -0.0014670923
        -0.0004022343       -0.0000553548       -0.0001686971
        -0.0000580356        0.0002493493       -0.0008071550
         0.0001457462       -0.0003948333        0.0002364397
        -0.0000772529       -0.0001304535       -0.0000226303
        -0.0004793473        0.0005227211        0.0005560459
         0.0001131654       -0.0010090728        0.0007015705
         0.0000236614        0.0002842435       -0.0002673480
        -0.0004661510        0.0009596957        0.0018498063
        -0.0006009878        0.0003553120        0.0000249992
         0.0003139763        0.0001347309        0.0001270053
         0.0008626172       -0.0012814117       -0.0008696190
        -0.0008613396       -0.0001482749       -0.0013932105
        -0.0001193731        0.0001746237       -0.0000926229
         0.0002032013       -0.0007951128       -0.0001949801
         0.0000145346       -0.0005147921       -0.0002426613
        -0.0001041839       -0.0003573273       -0.0000008323
        -0.0006236077        0.0000853871       -0.0001774754
         0.0002641535        0.0002730372       -0.0004995368
         0.0001356548       -0.0001777051       -0.0001933965
         0.0013163633       -0.0021750444        0.0000725945
        -0.0000782647        0.0005211494        0.0007505205
        -0.0002251080        0.0002012635        0.0002025763
         0.0008853874       -0.0000485885       -0.0002336355
         0.0014834396        0.0002222466        0.0007118360
        -0.0000054761       -0.0001937372        0.0000103338
         0.0004698735        0.0003232694        0.0008217340
         0.0005092289        0.0000781766        0.0002153459
        -0.0002529892       -0.0002910223        0.0003065770
         0.0001558996       -0.0003174002       -0.0001499363
         0.0001918052       -0.0001896031       -0.0001753254
         0.0001690593       -0.0000340390       -0.0002042894
         0.0002470836        0.0010591927        0.0003886223
        -0.0003560850        0.0008621181       -0.0001407218
        -0.0000328443        0.0001903035        0.0003458592
         0.0009472357       -0.0006289759        0.0000862704
         0.0001171259        0.0005529869        0.0007463464
        -0.0000545107       -0.0000598303       -0.0001933125
        -0.0007617012       -0.0014977582       -0.0005073216
         0.0001475298        0.0010444920       -0.0006443888
         0.0001905405        0.0001226232        0.0000013994
        -0.0008060398        0.0002338173       -0.0005072492
         0.0002519988        0.0015841761       -0.0005056349
         0.0000916566       -0.0002060590       -0.0004237567
         0.0005061946       -0.0003383684       -0.0001928920
         0.0012414666       -0.0003355808        0.0011719714
        -0.0000523160       -0.0000929904        0.0000394946
         0.0007778684        0.0001587640       -0.0003255360
        -0.0005841718       -0.0007933657       -0.0001771258
        -0.0000717183        0.0000313721       -0.0003155963
         0.0004772499       -0.0006815572       -0.0013773388
         0.0003442875       -0.0006859901        0.0004195346
        -0.0000535034       -0.0000635094        0.0001582861
         0.0010919767        0.0008049185       -0.0001119281
         0.0011623731        0.0011128085       -0.0011217072
         0.0000822242        0.0003302768        0.0000410662
        -0.0008291140        0.0013965228       -0.0002754482
         0.0005608307        0.0004739663       -0.0003185570
         0.0000196829        0.0001246042       -0.0003727610
         0.0004700539       -0.0001300458       -0.0003883168
        -0.0004461356        0.0001379179       -0.0017125222
        -0.0002959852        0.0001969562        0.0002020252
         0.0020077203       -0.0000649358       -0.0004194990
         0.0010651239        0.0010861521        0.0002521439
         0.0000705512        0.0001182616        0.0002035302
        -0.0003082027       -0.0002876474        0.0001981349
        -0.0003945377        0.0003467759        0.0004516255
        -0.0001605896       -0.0003186391       -0.0000848565
         0.0007888633        0.0005703231       -0.0007861614
        -0.0000705244       -0.0004583946       -0.0003983744
        -0.0001837017       -0.0001808282        0.0000759458
        -0.0009046661        0.0006180197       -0.0000614283
        -0.0002731736       -0.0009881439        0.0002314958
        -0.0000191808        0.0001360905       -0.0000476443
        -0.0007720601        0.0008777255       -0.0003871924
        -0.0000832491        0.0000895677       -0.0001991683
        -0.0000136631        0.0003151049       -0.0001252864
        -0.0003198013       -0.0001058522        0.0003905633
        -0.0010962446        0.0002268660        0.0001316116
        -0.0004493838       -0.0000840079        0.0001183192
        -0.0000474832        0.0021207201        0.0010943158
        -0.0006612632       -0.0003267941        0.0003174737
        -0.0000419322       -0.0001914086        0.0000454459
         0.0005639998        0.0000778280       -0.0008975267
        -0.0003095867        0.0000369788       -0.0009280378
         0.0002632136       -0.0000549763        0.0002642422
         0.0007518941        0.0002640310       -0.0003751274
        -0.0011281191       -0.0004397612        0.0004963281
        -0.0003828996       -0.0000715436       -0.0000740660
         0.0012954710        0.0009213180        0.0003300586
        -0.0007743818       -0.0009887563        0.0009762026
        -0.0000166987       -0.0000355800       -0.0000061089
        -0.0011513098        0.0004972705        0.0002167437
        -0.0006300344       -0.0001534214       -0.0005141124
        -0.0001061882        0.0001067028       -0.0000019382
        -0.0002187580        0.0004200436        0.0013427113
        -0.0006672649       -0.0003363354       -0.0008720398
        -0.0000600235        0.0000695533       -0.0001974308
        -0.0014156292        0.0002794354        0.0008103320
        -0.0000897351        0.0000261184       -0.0002272891
        -0.0001738123       -0.0000974958       -0.0001426787
        -0.0016421532       -0.0012024523       -0.0010960615
        -0.0003107832       -0.0002022642       -0.0012315746
        -0.0000412416        0.0000230446        0.0000652039
         0.0014319187        0.0008983093       -0.0012813889
         0.0015694650       -0.0007659673        0.0002646355
        -0.0002849470        0.0002586543       -0.0000403942
         0.0012924929        0.0003916674       -0.0001144823
        -0.0010549620        0.0010578777        0.0009581974
        -0.0000244814       -0.0003875721       -0.0001870394
        -0.0000028773        0.0001047413       -0.0003264360
         0.0003742873        0.0000203076       -0.0000008597
        -0.0000385033        0.0000212827       -0.0003198573
         0.0003568046        0.0005729371        0.0008132301
         0.0005814403       -0.0000884082        0.0011216469
        -0.0002215556       -0.0000556127       -0.0001051435
        -0.0008724063       -0.0010598746        0.0000428275
         0.0000629351       -0.0011947487       -0.0020303716
         0.0001589183       -0.0000838010       -0.0000015877
        -0.0002645816       -0.0011651563        0.0007504610
         0.0007998961       -0.0018289838       -0.0004184411
        -0.0000698932        0.0003495376        0.0001252085
        -0.0005540975       -0.0001219241       -0.0005486578
         0.0003795445        0.0006021662        0.0002942308
         0.0001536207        0.0002213145       -0.0000191050
         0.0003551344       -0.0014112392       -0.0000824813
        -0.0007778705        0.0002268317       -0.0000302222
         0.0000216336       -0.0000818844        0.0000423107
        -0.0002607601       -0.0006470852       -0.0004270080
        -0.0004419819       -0.0010462061       -0.0004481260
        -0.0001266026        0.0001911285       -0.0000119506
        -0.0002486462        0.0000367146       -0.0007711845
         0.0012283549       -0.0003789047       -0.0017392054
         0.0000712496        0.0001706869        0.0000000084
         0.0010271291        0.0001656046        0.0006633139
        -0.0012300658       -0.0001514084       -0.0001670507
        -0.0001428908        0.0003361531        0.0000600382
         0.0003151619       -0.0013653076       -0.0003415247
        -0.0006442486       -0.0010390308        0.0009516360
         0.0000906798        0.0000885133       -0.0005056915
        -0.0002255805       -0.0001792872       -0.0000174896
        -0.0007445356       -0.0001558990       -0.0004170765
         0.0004585407        0.0000970066        0.0001339650
         0.0002812439        0.0000299726       -0.0001591653
         0.0002361177        0.0012726398       -0.0008695895
         0.0000696899        0.0000561516        0.0003451851
        -0.0008624254        0.0007726105       -0.0001211066
         0.0010326678        0.0003831887       -0.0002017840
         0.0002995657       -0.0002747998        0.0001890694
         0.0003447155       -0.0007146580       -0.0003196338
         0.0005699455       -0.0007496912        0.0000036790
         0.0000604005        0.0000445733       -0.0000560826
         0.0006733245        0.0009819039        0.0013522664
         0.0003727928        0.0002388407       -0.0009763057
        -0.0001337296       -0.0001459551       -0.0002596189
        -0.0002480174        0.0009551697        0.0012312610
         0.0000796289        0.0008292247        0.0008173990
        -0.0000382521        0.0003506112       -0.0000846201
        -0.0006988171       -0.0001524770        0.0009389028
         0.0017091659       -0.0001727566       -0.0001335171
        -0.0001661235       -0.0000516343       -0.0004095406
        -0.0008708117        0.0001427578        0.0000389216
         0.0001707739        0.0003381255       -0.0010052492
         0.0003566252        0.0000068942       -0.0000993108
         0.0001911288       -0.0008908338        0.0009462657
        -0.0002007661        0.0003954848        0.0000214273
        -0.0001407325       -0.0000254806       -0.0000477102
        -0.0000843210       -0.0001404858       -0.0002808927
         0.0003143518        0.0009121362       -0.0008113311
        -0.0000849259       -0.0000386086        0.0003805442
         0.0004700438        0.0000465616        0.0005371844
         0.0006434299        0.0005980539        0.0011876674
        -0.0002480875       -0.0002508260        0.0001320413
         0.0023963263       -0.0005178559        0.0002310267
        -0.0001269387        0.0007897799       -0.0009251284
         0.0001023640        0.0000170916        0.0001162600
        -0.0000212909       -0.0006860066       -0.0014986787
         0.0001757970        0.0011391233        0.0003910512
         0.0002972362        0.0001721113        0.0003165793
         0.0005869889       -0.0006621336       -0.0002517171
         0.0007225380        0.0000707048        0.0013240697
        -0.0000358809       -0.0001766737        0.0000584252
         0.0001328901       -0.0003851398       -0.0005292248
         0.0016548182       -0.0001788595        0.0002129699
         0.0000324679       -0.0001351053        0.0001197498
        -0.0002739938        0.0010513003       -0.0007425914
         0.0005798547       -0.0004014953        0.0002991732
        -0.0000016538        0.0002005634       -0.0001047647
        -0.0009541897        0.0004719235        0.0007114487
         0.0003866445        0.0003108451        0.0000774527
         0.0000788514       -0.0005401869        0.0002324260
        -0.0002486856       -0.0005645701       -0.0000246603
         0.0001783339        0.0001497211        0.0008466497
        -0.0003216725       -0.0000644588       -0.0000262102
        -0.0006093836        0.0000292244       -0.0003718884
         0.0005968583       -0.0008077978       -0.0000021779
         0.0001899010       -0.0002079656        0.0000973513
        -0.0008521597        0.0006777515       -0.0001134348
        -0.0003601362        0.0001420572       -0.0000831872
        -0.0000612117       -0.0002159172       -0.0000985650
        -0.0016071198       -0.0012004594       -0.0001969824
        -0.0001221275        0.0017470628        0.0000892798
        -0.0000457114        0.0002392302        0.0003963696
         0.0002205262        0.0007854903       -0.0000234060
        -0.0004388572       -0.0009794051       -0.0000669928
        -0.0001034944        0.0002218421        0.0000733690
         0.0006588142        0.0008529209       -0.0017100075
         0.0001912439        0.0001924529        0.0001015162
         0.0000961397       -0.0001725449        0.0000880556
         0.0018522472        0.0004313644       -0.0003676920
         0.0007267268        0.0006858543       -0.0011280942
         0.0000527751       -0.0000606287       -0.0000384378
        -0.0012111456        0.0007925492       -0.0005071439
         0.0010970440       -0.0003867531       -0.0006721739
        -0.0000611653        0.0002563049       -0.0001456252
        -0.0001377224        0.0004110133        0.0005218595
        -0.0006549972        0.0000019453        0.0002516115
        -0.0002730524        0.0002976716       -0.0000558723
         0.0000900946        0.0000004020       -0.0000464292
         0.0010222302        0.0001956292        0.0001677593
        -0.0001117822        0.0001879965       -0.0000006606
        -0.0010432322        0.0004636795       -0.0003382350
         0.0001511238        0.0010942103        0.0001512726
         0.0001672795        0.0000076943        0.0000010184
         0.0006221050       -0.0001761339       -0.0007370683
         0.0009771105        0.0004980404        0.0012231123
         0.0001775094        0.0002057098        0.0003842893
         0.0009514857        0.0002773906       -0.0004278581
         0.0000389633        0.0012468097       -0.0009606526
         0.0000066666        0.0000559702        0.0004113007
        -0.0003651357       -0.0014118586        0.0004901636
        -0.0000458365        0.0003667207       -0.0013748462
        -0.0000824819        0.0002040382       -0.0004925803
         0.0000953430        0.0005219047        0.0004764761
         0.0012110180       -0.0001680290        0.0007403578
        -0.0001543994        0.0001057144       -0.0000944688
        -0.0010341691       -0.0006022046        0.0011427742
         0.0000208325       -0.0001141748       -0.0002167670
         0.0000945444        0.0002207364       -0.0001020095
         0.0006434774       -0.0000092322        0.0003636430
         0.0010789349        0.0000418554        0.0012823159
         0.0001209065        0.0000532043       -0.0000063748
         0.0002625350       -0.0018429730       -0.0004333484
         0.0001112247        0.0008743534       -0.0008199681
         0.0001763953       -0.0000205556       -0.0003859930
         0.0008177119        0.0003372024        0.0003471367
        -0.0009468532        0.0003834099        0.0008059390
         0.0000319950        0.0002894931        0.0000870267
         0.0002437841        0.0000346361        0.0008036412
        -0.0018240025        0.0003591080       -0.0003458153
         0.0000756217        0.0001045126       -0.0000295300
         0.0008197543       -0.0005512079        0.0011716389
        -0.0006279495       -0.0001681559       -0.0009091568
        -0.0001900343        0.0000836643        0.0000756179
         0.0014141249       -0.0000850685        0.0003386768
        -0.0004328482       -0.0002555271       -0.0004054578
         0.0000537520        0.0003131290        0.0000110913
         0.0001600267        0.0012097976       -0.0006212871
        -0.0006247785        0.0009181031        0.0005351491
        -0.0000134528       -0.0000218356        0.0003382567
         0.0004096668        0.0007769318        0.0020246842
         0.0013949365       -0.0011200574        0.0003751141
        -0.0000207449        0.0000037822        0.0000023739
         0.0007360835       -0.0008011921        0.0006245059
        -0.0006929442        0.0002336872       -0.0000592982
        -0.0002284339       -0.0003381760       -0.0001353357
        -0.0001536292       -0.0000417457       -0.0009580860
         0.0004908582       -0.0000903748        0.0004604071
         0.0004502996        0.0000424664       -0.0002331134
        -0.0002851903       -0.0006809655        0.0009125089
        -0.0002013607       -0.0004343113        0.0000272197
         0.0001368909       -0.0002206236       -0.0001762066
         0.0006583642       -0.0002616220        0.0001345474
        -0.0001682370       -0.0000355694        0.0006139952
        -0.0000359762       -0.0000572906        0.0000903259
         0.0001692011       -0.0009526372        0.0007205780
        -0.0002344941       -0.0007463049       -0.0012358936
        -0.0000441172        0.0002959434        0.0002166402
        -0.0005401572        0.0000493940       -0.0010874025
         0.0006594426        0.0011998481       -0.0010835908
        -0.0001618745       -0.0000756323        0.0001354770
         0.0008832795       -0.0008816856        0.0000181925
        -0.0010957839       -0.0003254405        0.0009498385
         0.0000949921        0.0000012921        0.0001589853
        -0.0013483928        0.0007146707       -0.0006835062
         0.0000637398        0.0006115419        0.0006504110
        -0.0001505281       -0.0000885980        0.0001911373
        -0.0000170790        0.0005164896       -0.0008919633
        -0.0002560851        0.0002556091       -0.0005476157
         0.0002645101        0.0000071762       -0.0000911928
         0.0008524843       -0.0001551578       -0.0005176820
         0.0003441926        0.0007006577       -0.0010603371
         0.0002657548        0.0000550011       -0.0000628789
         0.0006398333       -0.0013240547        0.0004149073
        -0.0004046552        0.0006217848       -0.0001836791
         0.0000069126        0.0002280425        0.0000207058
         0.0004720024        0.0010698280        0.0007637288
         0.0006363888       -0.0001461201        0.0002253984
        -0.0001508822       -0.0000986567       -0.0003727310
        -0.0007538444        0.0001465143        0.0001731751
        -0.0007308927       -0.0001854545       -0.0000591400
        -0.0003907720        0.0002034505        0.0000269395
         0.0021498042        0.0000667666        0.0000809650
         0.0003865057       -0.0004154485        0.0002247392
         0.0001683875        0.0002213214       -0.0000798935
         0.0002039573        0.0013831912       -0.0006047360
        -0.0009356194        0.0005492025       -0.0010840634
        -0.0001978168       -0.0000171573        0.0002536724
        -0.0002749450        0.0001687436       -0.0003705473
        -0.0006647797        0.0003873516       -0.0004776783
        -0.0001382522       -0.0000769009       -0.0001034587
        -0.0003184656       -0.0006690518        0.0006583781
        -0.0010733576       -0.0011421211        0.0014953962
         0.0000737092        0.0000425693       -0.0000591440
         0.0004839757       -0.0001493580       -0.0005567354
        -0.0000436174        0.0012463132        0.0002137768
        -0.0000064276        0.0000965773        0.0001361745
         0.0013076825       -0.0001052579       -0.0013064050
         0.0004283761        0.0008326580       -0.0011387800
        -0.0002638462       -0.0001705628        0.0001421082
        -0.0009925064       -0.0007558394       -0.0006251022
        -0.0002884206       -0.0003219545       -0.0006099872
        -0.0000430625       -0.0000757988       -0.0000158718
         0.0007315159        0.0009060661       -0.0003809271
         0.0003478019       -0.0001926767        0.0009588650
        -0.0003888109        0.0000011645        0.0000145991
         0.0001052890       -0.0007684615       -0.0008369166
        -0.0002851974        0.0015524441       -0.0006207230
         0.0001905440        0.0000688925        0.0002926110
        -0.0011772006       -0.0006600554       -0.0007954647
         0.0010571477       -0.0007927174       -0.0000568069
        -0.0001327929        0.0001192388       -0.0000534556
         0.0009190290        0.0000987853       -0.0003031977
         0.0006745586        0.0004240095        0.0007951197
        -0.0000859206        0.0000592906       -0.0002771110
        -0.0000092681       -0.0012242078       -0.0007948339
         0.0002393200       -0.0008637195       -0.0002196792
         0.0000717895        0.0001252686        0.0000010450
         0.0011154666       -0.0007575897        0.0008811289
         0.0007765285        0.0011400663        0.0006824486
         0.0001455742        0.0001907810        0.0001698777
         0.0006251906       -0.0000376094       -0.0003853077
         0.0004339901       -0.0005074154       -0.0001319222
        -0.0001657071        0.0000265694        0.0003545406
         0.0006497044        0.0006563003       -0.0008079282
        -0.0007103272       -0.0006099240       -0.0011079189
         0.0000319849        0.0002353947        0.0003537705
         0.0014433412       -0.0004810560        0.0002607979
        -0.0011250762       -0.0001715876       -0.0001038189
        -0.0001161117       -0.0002290409       -0.0000585750
        -0.0007636257       -0.0004185403       -0.0005656041
        -0.0004278072        0.0010002123       -0.0000935381
         0.0001682061        0.0003009971        0.0003498423
         0.0007089702       -0.0003641075        0.0000864961
        -0.0007678599        0.0007094935        0.0009977557
         0.0001408067       -0.0003937208        0.0002463940
         0.0000655067        0.0006994359       -0.0015168591
         0.0007265607       -0.0001716430        0.0000169348
        -0.0002248379       -0.0002430094        0.0000435941
        -0.0015035109       -0.0000501547       -0.0004209834
        -0.0014452145       -0.0001634186        0.0003113813
        -0.0001373783        0.0002819020       -0.0000749629
         0.0008055126        0.0006001376       -0.0007458629
         0.0011395296        0.0002368870       -0.0000218472
         0.0000331271        0.0000275931        0.0000345323
        -0.0003930973       -0.0005863827       -0.0004828191
         0.0004472786       -0.0008154957       -0.0010438837
         0.0001027298        0.0000553697        0.0000956945
        -0.0008636454        0.0001501987        0.0003091306
        -0.0000489215       -0.0001073345       -0.0003315441
        -0.0001301750        0.0000316514       -0.0001972666
        -0.0009022000        0.0001010611       -0.0000631807
         0.0001010354       -0.0008152935        0.0000902226
         0.0001371250       -0.0000599406        0.0001692130
         0.0001878455        0.0013207990       -0.0005759625
        -0.0004032132        0.0013182309       -0.0012457071
        -0.0001700966       -0.0003438197       -0.0000950178
         0.0007641859        0.0000736247       -0.0009305813
        -0.0002588251       -0.0003356957       -0.0017617850
        -0.0002885572       -0.0001467784        0.0002326572
        -0.0002794009        0.0004000042        0.0000856746
         0.0008732747        0.0002323872        0.0003779984
         0.0002698925       -0.0001963992        0.0000069989
         0.0003842849       -0.0013851353        0.0004483430
         0.0006550796       -0.0001312393       -0.0005493065
         0.0000175323        0.0003114162       -0.0004733950
        -0.0007732507       -0.0013281591       -0.0023865693
        -0.0006967619        0.0005601929        0.0000053848
        -0.0001007004        0.0000381922        0.0000435227
        -0.0005794522        0.0006933110       -0.0003759265
         0.0003401296        0.0008942729        0.0001801643
        -0.0000654234       -0.0000597604       -0.0001414740
        -0.0001933805        0.0002147398        0.0000975186
         0.0006664178        0.0002705250        0.0005143990
        -0.0002558922       -0.0002769804        0.0002039944
        -0.0000599165        0.0002752751       -0.0001676303
         0.0014676475       -0.0009509554        0.0009747885
        -0.0000751324       -0.0001119304       -0.0002292853
        -0.0003925958        0.0003202122        0.0007555995
        -0.0004354334       -0.0005538250        0.0002811615
         0.0001242146       -0.0004987901        0.0000632807
        -0.0014379718       -0.0002291927        0.0009601719
         0.0010808292        0.0005691041        0.0002038974
         0.0001582284        0.0003282810        0.0000860329
         0.0010149157       -0.0003551215        0.0001349424
        -0.0004909357        0.0017152221       -0.0020820689
         0.0003958447       -0.0003372718       -0.0001251022
        -0.0003065496       -0.0018330911       -0.0003724597
         0.0014201092        0.0001439935       -0.0004874570
         0.0001887506       -0.0001073372       -0.0000139251
         0.0005637629       -0.0004907137        0.0008390632
         0.0007926636       -0.0001145828       -0.0005188018
         0.0001323268        0.0001693607        0.0003241799
         0.0007020274        0.0003031144       -0.0008278223
         0.0004587249       -0.0002393087       -0.0005356286
        -0.0000557833        0.0001707543       -0.0000543981
         0.0002985584       -0.0002010967        0.0006532972
        -0.0006114233       -0.0014258343       -0.0004669743
         0.0002154474       -0.0003154545        0.0001980881
         0.0001071788       -0.0003930439        0.0000901508
        -0.0003933723        0.0003415271       -0.0007301572
         0.0000962191        0.0001912714        0.0001609739
        -0.0001622420        0.0004673888        0.0001419628
        -0.0007493586       -0.0002341465       -0.0006430444
         0.0000737961        0.0000486584        0.0000465457
        -0.0010376299       -0.0007054496        0.0013390914
        -0.0002945866        0.0000856110        0.0006162684
        -0.0000277791        0.0000112330        0.0001719164
         0.0002885851       -0.0001039077        0.0003068240
         0.0008856714       -0.0002125514        0.0009984202
        -0.0000668229       -0.0001353834       -0.0000439984
        -0.0009888732        0.0006870603       -0.0004294063
        -0.0005378822        0.0004015877        0.0004341698
        -0.0001464556        0.0000291595        0.0000387664
        -0.0001075306        0.0000252131        0.0004099805
         0.0007804217        0.0014564480       -0.0002867945
         0.0001591466       -0.0002716553        0.0001430129
        -0.0004607724        0.0001586218       -0.0003457735
        -0.0008968273       -0.0002949183       -0.0001753339
        -0.0000201679        0.0001422622        0.0000528814
         0.0000248623        0.0010723602       -0.0012791901
         0.0004570041        0.0003630118       -0.0001608511
         0.0000307376       -0.0001328155       -0.0000663877
        -0.0002773980        0.0000799117        0.0014062158
        -0.0006865447       -0.0002563288        0.0002225826
        -0.0000192328       -0.0001132479       -0.0000576856
        -0.0001119308        0.0012738040       -0.0005621216
        -0.0002648653       -0.0011779242       -0.0008552490
         0.0000972608        0.0001369522        0.0001406703
        -0.0007138253        0.0003098360       -0.0010514644
         0.0014509813       -0.0001184505        0.0012503020
        -0.0001115997        0.0002697883        0.0001826489
         0.0002260070        0.0009666247        0.0011177478
         0.0001165490       -0.0005203706       -0.0006143196
        -0.0001552147       -0.0004102700       -0.0002544071
        -0.0003476478       -0.0002768368       -0.0001650583
         0.0010318305        0.0007222970        0.0001273064
        -0.0002852057        0.0000523689        0.0000221107
        -0.0004432353       -0.0000518085       -0.0000967201
         0.0000680867        0.0008277452       -0.0005472719
         0.0003099803        0.0000583355       -0.0003038940
         0.0004163897        0.0003461081        0.0000098857
         0.0000461422        0.0010444402       -0.0010920489
         0.0001882486        0.0001270968       -0.0001064084
         0.0008206804        0.0012097358       -0.0003727271
        -0.0007550322        0.0009117266        0.0003158393
        -0.0000738326       -0.0000413624        0.0001123478
         0.0014265216        0.0007210550       -0.0003265820
